ply
format ascii 1.0
comment PCL generated
element vertex 608
property float x
property float y
property float z
property uchar red
property uchar green
property uchar blue
property float nx
property float ny
property float nz
property float curvature
element camera 0
property float view_px
property float view_py
property float view_pz
property float x_axisx
property float x_axisy
property float x_axisz
property float y_axisx
property float y_axisy
property float y_axisz
property float z_axisx
property float z_axisy
property float z_axisz
property float focal
property float scalex
property float scaley
property float centerx
property float centery
property int viewportx
property int viewporty
property float k1
property float k2
end_header
-0.54466683 0.42531824 0.27441731 194 199 192 -0.083892733 0.9952718 -0.048949167 0
-0.53501076 0.42574325 0.27448532 196 200 193 0.021410177 0.99967408 -0.013905389 0
-0.5266878 0.42574766 0.27246487 196 201 194 -0.0079717869 0.99716431 -0.074831977 0
-0.51533806 0.42550424 0.27536443 198 203 196 0.035423648 0.99896675 -0.028471036 0
-0.50455916 0.42570263 0.27496016 200 205 197 -0.08704292 0.99587423 -0.025652956 0
-0.49641722 0.42528298 0.27689397 199 206 197 -0.033524483 0.98608416 -0.16283143 0
-0.48446417 0.42532685 0.27628753 203 208 202 0.026065743 0.99843901 -0.049397774 0
-0.4752712 0.42535865 0.27872732 204 209 202 0.082599282 0.99394614 -0.07244575 0
-0.46398127 0.42505655 0.27791682 205 210 203 0 0.99888331 0.047245499 0
-0.45450741 0.42570895 0.27203465 205 210 203 0.018612852 0.99680358 0.077693097 0
-0.44600484 0.42608574 0.27484223 205 210 203 -0.099209249 0.99494994 -0.015236293 0
-0.43697619 0.42657965 0.27789831 206 211 204 0 0.9805811 -0.19611387 0
-0.42587531 0.42734951 0.27418745 203 210 202 -0.15723421 0.98672646 -0.040599585 0
-0.39291245 0.42799997 0.27626702 199 208 202 0 1 0 0
-0.38457614 0.42857647 0.27571359 198 207 202 0.0070364047 0.99976838 0.020337109 0
-0.37559348 0.42868644 0.27418941 199 208 204 -0.10838728 0.99242532 -0.057827607 0
-0.36352247 0.42913231 0.2795077 203 212 209 -0.21969028 0.9666236 -0.13181435 0
-0.35494041 0.4297514 0.27441764 203 212 209 0.039099243 0.99746162 -0.059511669 0
-0.3455244 0.42975682 0.27649856 203 212 209 -0.054274905 0.99739563 -0.047499157 0
-0.29606649 0.42990702 0.27284425 211 217 213 0.17817612 0.9799574 -0.089088731 0
-0.27462712 0.42905644 0.27290744 217 222 217 0.032837283 0.99941218 0.0098512135 0
-0.26423261 0.42923877 0.27618346 219 225 219 0.024052855 0.99593455 -0.086808965 0
-0.25078315 0.42900002 0.27776149 225 228 221 0 1 0 0
-0.24131489 0.42910689 0.27691528 228 230 219 -0.062098671 0.99785537 -0.020699557 0
-0.23326313 0.42908248 0.27461734 227 229 219 0 0.99846971 -0.05530129 0
-0.21399495 0.42906314 0.27229154 222 226 219 -0.053316098 0.99671692 -0.060932707 0
-0.20552117 0.42900002 0.27342325 214 223 220 0 1 0 0
-0.19390829 0.42894068 0.2749621 219 225 219 0.043705516 0.99896646 0.012487226 0
-0.185957 0.42824975 0.27504253 214 223 221 0.15727426 0.98461586 0.076134481 0
-0.17618126 0.42832848 0.2764771 186 207 215 -0.26215917 0.95462489 -0.14129373 0
-0.16977149 0.42828593 0.2725158 157 196 225 -0.37559056 0.72613293 -0.57590169 0
0.014491584 0.4263691 0.27572879 67 71 75 0.70557946 0.65920287 0.26001772 0
0.16630508 0.42648506 0.27533862 82 97 99 -0.95263314 0.28014326 -0.11836313 0
-0.81713855 0.43479893 0.27577519 40 54 56 0.83898574 0.26210186 0.47687063 0
-0.3547639 0.43000001 0.27508786 204 213 210 0 1 0 0
-0.34624648 0.43000001 0.27670071 204 213 210 0 1 0 0
-0.33529848 0.43000001 0.27565056 206 215 212 0 1 0 0
-0.32155633 0.43004107 0.2762337 213 220 217 -0.1089953 0.99366868 0.027248822 0
-0.31791112 0.43000001 0.27120864 208 217 212 0 1 0 0
-0.30380601 0.43000001 0.27366883 211 220 215 0 1 0 0
-0.29754788 0.43000001 0.2729162 211 220 215 0 1 0 0
-0.16623667 0.43135345 0.27700126 148 184 207 -0.047581013 0.97051775 -0.23628633 0
-0.15416522 0.43182096 0.27441767 131 171 195 -0.01175468 0.99820215 -0.058773264 0
-0.14571899 0.43200004 0.27733433 151 185 207 0 1 0 0
-0.13253662 0.43200004 0.27223054 164 196 210 0 1 0 0
-0.12616837 0.43200001 0.27504006 176 200 212 0 1 0 0
-0.11223631 0.43209535 0.27661979 179 204 213 -0.027046978 0.99844795 -0.048684623 0
-0.10538293 0.43218529 0.27499095 191 210 214 -0.059490249 0.99517083 -0.078076027 0
-0.095032312 0.43231741 0.27452528 194 211 213 -0.041365672 0.99461979 0.094975986 0
-0.085108049 0.43218571 0.27611133 197 212 214 0.0452298 0.99835706 0.035178714 0
-0.073089212 0.43213099 0.27533627 198 213 213 0.012943616 0.99888939 -0.045302559 0
-0.065943137 0.43211508 0.27516815 198 212 212 -0.0080522373 0.99860978 -0.052093402 0
-0.052909102 0.43200001 0.27550679 197 213 212 0 1 0 0
-0.043693118 0.43168604 0.2758534 199 213 213 0.037385322 0.99069715 -0.13084933 0
-0.035218358 0.43143079 0.27522606 200 214 214 -0.036191341 0.99524063 -0.090478137 0
-0.023931088 0.43133998 0.27574012 201 213 209 0.046710789 0.99793839 -0.044012506 0
-0.01602855 0.43146658 0.27861762 202 213 209 -0.13777344 0.98639596 -0.089674063 0
-0.0056055626 0.43114024 0.27685571 201 212 208 0.029336253 0.99913901 -0.029336315 0
0.0063845231 0.4306539 0.27544811 133 144 150 -0.068162389 0.99624228 0.053433575 0
0.16914263 0.43358278 0.27379981 86 101 104 -0.96067435 0.24778003 -0.12533867 0
0.17129514 0.43839598 0.27380019 87 103 105 -0.84490699 0.47570577 -0.2446145 0
-0.8216874 0.44443676 0.27773443 47 61 64 0.75910264 0.53577971 0.36973402 0
-0.81771117 0.44257793 0.27147004 47 61 64 0.79334313 0.37910956 0.47632191 0
0.17426892 0.44452634 0.27436194 88 107 109 -0.93936867 0.31054592 -0.14542265 0
-0.87702543 0.45716137 0.27639797 26 28 24 -0.63371003 0.72123057 0.27971074 0
-0.86971575 0.45711657 0.27921435 56 65 64 -0.65094876 0.39056352 0.65094233 0
-0.83038843 0.45708272 0.27945268 55 69 70 0.85131514 0.38446721 0.35699794 0
-0.82652158 0.45412132 0.27532464 54 68 71 0.78282857 0.42412263 0.45530149 0
0.17836666 0.45282689 0.27451104 96 116 116 -0.8458004 0.51091433 -0.15358478 0
0.18290856 0.45706469 0.27345493 101 121 120 -0.61175239 0.76775658 -0.19054855 0
-0.87359095 0.46089536 0.27539492 58 67 63 -0.27664796 0.50344127 0.81854308 0
-0.86720216 0.46388566 0.27885175 74 89 89 -0.76252735 0.40731853 0.50263667 0
-0.83249307 0.46552351 0.27569765 63 77 78 0.78690058 0.46760893 0.40265298 0
-0.8296026 0.46398455 0.27191371 63 77 79 0.92215592 0.29352313 -0.25193787 0
0.18687834 0.46159571 0.27544242 106 125 127 -0.67972302 0.71367836 -0.16923304 0
0.19475016 0.46601176 0.2758531 105 124 125 -0.40799764 0.89414686 -0.18449742 0
0.20292123 0.46820357 0.27115169 98 114 117 -0.34449691 0.89719296 -0.27634531 0
0.23636898 0.46843135 0.27783653 112 131 133 0.038059846 0.90598309 0.42159945 0
0.24643987 0.46727294 0.27252683 104 121 125 -0.82439423 0.51766175 -0.22891156 0
0.25151834 0.46213526 0.27105409 113 131 133 0 0.37139165 -0.92847633 0
-0.86481833 0.47218594 0.27418655 116 138 144 -0.55782759 0.65825951 0.50549269 0
-0.85508507 0.47712716 0.27539226 67 80 81 -0.3180851 0.94536436 0.071471259 0
-0.84547746 0.47753921 0.27438474 65 78 79 0.20428668 0.85774505 0.47174191 0
-0.83715069 0.47383484 0.27363905 64 76 78 0.694763 0.57615489 0.43052289 0
0.20809808 0.47217417 0.27552527 103 120 121 -0.53768194 0.80979276 -0.23480579 0
0.21504739 0.47638375 0.27383274 105 121 123 -0.72072172 0.68021619 -0.13366388 0
0.23480791 0.47327793 0.2736648 119 140 144 0.79727608 -0.25030875 0.54926902 0
0.24512702 0.47061753 0.27492988 112 129 135 -0.45308834 -0.020522399 0.89122933 0
0.25112379 0.47153282 0.27917406 113 131 133 -0.42895544 0.67906928 0.59570312 0
0.21845084 0.48055038 0.27809656 101 119 121 -0.52381641 0.85120177 -0.032740794 0
0.22262463 0.48157892 0.27642018 102 119 120 -0.25664288 0.96636778 0.01636296 0
0.019045191 0.15926838 0.28857946 4 14 15 0.15162008 0.9855274 -0.075809926 0
0.023535488 0.15890166 0.28509369 6 15 17 0.31303334 0.94810069 0.055814557 0
0.033944238 0.15848424 0.28397611 8 18 20 -0.10339426 0.98410857 -0.14436044 0
0.046111617 0.15940097 0.28412846 11 21 23 -0.096568532 0.9922415 -0.078302592 0
0.052964214 0.15961657 0.28400415 14 24 25 -0.24077223 0.96308672 -0.1203858 0
0.065476134 0.15945718 0.28595528 16 26 27 0.11850088 0.99147183 -0.054232758 0
0.070050023 0.15952501 0.2835716 22 32 34 -0.44721437 0.89442682 -2.71159e-07 0
-0.055189732 0.16614491 0.28622392 25 34 39 0.25729781 0.95676762 0.13562317 0
-0.043744277 0.16427009 0.28624731 26 35 39 -0.110528 0.99300045 -0.041639749 0
-0.035841525 0.16395684 0.28383753 26 36 38 0.099289767 0.99397129 -0.046504352 0
-0.025502406 0.16454858 0.28737345 26 34 39 -0.17319401 0.983576 -0.05081309 0
-0.013758326 0.16438958 0.28451356 28 36 40 0.066799894 0.99628347 0.054378901 0
-0.0011788941 0.16386776 0.28432885 98 107 113 0.16018254 0.98708743 0 0
0.0046217311 0.1622224 0.2851966 3 11 13 0.25116476 0.96613306 -0.059187587 0
0.013584474 0.16108084 0.28436202 6 15 16 0.066385515 0.99763256 0.017951129 0
0.048690744 0.16 0.28943887 10 21 20 0 1 0 0
0.055831272 0.16072622 0.28714898 7 14 15 -0.39930367 0.80051649 -0.44691154 0
0.061836407 0.16147353 0.28238752 15 25 26 0.14678951 0.97292763 0.17850657 0
0.075385556 0.16138515 0.28544694 24 34 36 -0.2068627 0.9766084 -0.058684677 0
0.085565642 0.16356727 0.28493261 9 17 19 -0.37152401 0.92372698 -0.093264334 0
0.094060898 0.16318896 0.28593686 5 14 13 0.13721709 0.98218375 0.12839973 0
0.10455707 0.16648337 0.28660583 7 16 15 -0.46482268 0.8692739 -0.16823387 0
0.11518098 0.17463605 0.28503731 6 15 13 -0.81148005 0.55407202 -0.1857533 0
0.11983587 0.18674853 0.28753269 17 29 27 -0.96639055 -0.093901798 -0.23931538 0
0.12047496 0.1845881 0.28416929 15 26 26 -0.95673525 0.21727917 -0.19351363 0
0.12186815 0.19467266 0.28479418 38 52 52 -0.98812389 0.14504232 -0.050732587 0
0.12597144 0.20564325 0.28507388 45 58 58 -0.91390258 0.36570281 -0.17619164 0
0.12901592 0.21102574 0.28490454 47 58 58 -0.76427275 0.62134594 -0.17267428 0
0.13328794 0.21648383 0.28560716 43 54 54 -0.70977443 0.69867635 -0.089841649 0
0.13894108 0.22211897 0.28530478 34 44 44 -0.63406706 0.76287872 -0.12639269 0
0.14480026 0.22595185 0.28466868 26 34 33 -0.25130054 0.93930608 -0.23356429 0
0.15222353 0.22424076 0.28196359 26 35 34 -0.72834963 0.56046301 -0.39419279 0
0.14933346 0.23400487 0.28769997 27 34 34 -0.89728928 -0.079993755 -0.43413472 0
0.15152349 0.23397425 0.28191599 23 29 28 -0.9504016 -0.059104711 -0.30535784 0
0.14692613 0.24650609 0.28576738 27 31 30 -0.70743936 -0.65504485 -0.26541603 0
0.15093724 0.24065274 0.28131545 27 32 31 -0.90217948 -0.30534953 -0.30468652 0
0.13677448 0.25309381 0.28387165 22 26 23 -0.93222749 -0.35988745 -0.037854884 0
0.13885923 0.26428884 0.28690881 28 31 28 -0.9799825 0.1842553 -0.075394496 0
0.1403124 0.26715985 0.2814593 29 34 30 -0.99524999 0.02944291 0.092792757 0
0.14176883 0.27467448 0.28435597 25 28 25 -0.96221191 0.20099364 -0.18371102 0
0.14284882 0.28517467 0.28613731 30 32 30 -0.93961024 0.083275728 -0.33196062 0
-0.8003242 0.29855424 0.28544036 139 140 144 0.1848949 -0.73960173 0.6471501 0
-0.79265869 0.29900345 0.28463572 132 135 140 0.27866882 0.95969051 0.036576189 0
-0.78580475 0.29732874 0.28415444 130 133 138 0.21253036 0.9751752 -0.062162645 0
0.14481749 0.29522026 0.28460148 29 31 29 -0.96033299 0.15578157 -0.23128481 0
-0.80078441 0.30867317 0.28684315 144 147 150 0.85555804 0.47881135 0.19687597 0
-0.79697621 0.30338249 0.28486162 111 115 119 0.71781361 0.67981392 0.15032162 0
-0.77458727 0.30227152 0.28141266 26 29 36 -0.70711732 0 0.70709628 0
0.14740811 0.30708027 0.28625455 29 31 29 -0.90634769 0.2808173 -0.31571433 0
-0.81016314 0.31972253 0.28060383 0 0 0 0.81649524 0.40824968 0.40824968 0
-0.80611569 0.31399924 0.28541139 134 140 143 0.70122242 0.71290934 0.0068821898 0
0.14851375 0.31584173 0.2865541 28 29 26 -0.92839712 0.085691795 -0.36157396 0
0.15096635 0.31601715 0.28010094 28 28 26 -0.94868428 0 -0.31622493 0
-0.81352282 0.32377738 0.28510609 31 34 36 0.50223213 0.86102152 -0.080030814 0
-0.80503309 0.32767177 0.28572902 100 107 110 0.62522656 -0.38024381 0.68154699 0
0.14816044 0.32479623 0.28859344 26 28 26 -0.70544988 -0.068526812 -0.70543927 0
0.15076447 0.32390323 0.2824097 28 30 28 -0.98573333 0.049850073 -0.16076314 0
-0.81383651 0.33240542 0.2839343 58 59 58 0.1877172 -0.88560557 0.42481175 0
-0.80381614 0.33456945 0.28652561 40 44 50 0.48308563 -0.2834973 0.82840657 0
-0.79930514 0.33690429 0.28106871 16 28 41 0.89646763 0.13075717 0.42337722 0
0.14884831 0.33570686 0.2844277 29 30 29 -0.9569127 -0.018477747 -0.28978732 0
0.15024509 0.33020949 0.28286791 29 29 29 -0.89087093 -0.089086011 -0.44543546 0
-0.80453014 0.34442508 0.28525397 1 3 5 0.91383958 0.28734511 0.2869319 0
0.14865658 0.34562492 0.28720286 31 32 30 -0.91852635 0.11474408 -0.37834263 0
-0.80659544 0.35490099 0.28472099 2 4 5 0.90681189 0.20862965 0.36628658 0
0.14990199 0.3564668 0.28981587 34 36 35 -0.9704951 0.21566562 -0.10783136 0
0.15079038 0.35538483 0.28256136 34 37 34 -0.99286598 0.015521039 -0.11822149 0
-0.80697197 0.36484814 0.28461739 1 5 6 0.96849513 -0.071697585 0.23848841 0
0.14984836 0.36613739 0.28867307 30 34 33 -0.96918994 0.050022136 -0.24118173 0
0.15134537 0.36484012 0.28304148 35 39 40 -0.95790529 0.13612135 -0.25276178 0
-0.81019175 0.37977117 0.28837156 9 13 14 0.73787159 0.52704263 0.42162973 0
-0.80797881 0.37528998 0.28615871 4 8 9 0.9352358 0.23473474 0.26501638 0
0.1522651 0.37389153 0.28481171 38 44 47 -0.96261668 0.12898809 -0.2381833 0
-0.81113845 0.38681605 0.28655058 8 12 13 0.96373338 0.12704246 0.23468764 0
-0.80850029 0.38155329 0.28274643 5 9 10 0.83087325 0.29065236 0.47452164 0
0.15387887 0.3852208 0.28518751 42 51 52 -0.96724206 0.13695352 -0.21374418 0
-0.81164092 0.39565632 0.28492394 11 15 16 0.95176828 0.076406851 0.29715157 0
0.15593381 0.39439267 0.28462994 46 56 58 -0.97801185 0.1817213 -0.10232382 0
-0.81270611 0.40660763 0.28429151 16 21 24 0.95829779 0.15015379 0.24314418 0
-0.73236609 0.40807569 0.28606024 111 127 134 -0.86454552 0.46669471 -0.18643256 0
0.15771037 0.40412894 0.28435856 54 67 71 -0.95363355 0.19038109 -0.23310518 0
-0.81391442 0.41421896 0.28558218 20 26 29 0.91747278 0.074403256 0.39077857 0
-0.7311635 0.41234618 0.28907204 130 149 159 -0.76768202 0.61669439 -0.17421919 0
-0.72563982 0.41636333 0.28460491 227 232 235 -0.67124897 0.62619793 -0.39661193 0
0.15978789 0.41355649 0.28692886 67 82 84 -0.93878651 0.25097427 -0.23599145 0
0.16107035 0.41726527 0.28529778 70 85 88 -0.98308712 0.18246889 -0.015646933 0
-0.81700182 0.42599437 0.28512979 31 42 43 0.91446126 0.27537745 0.29652625 0
-0.72282583 0.42085001 0.28858045 255 255 255 -0.57124364 0.78341794 -0.24482043 0
-0.7155894 0.42330554 0.28429586 255 255 255 -0.27987319 0.95066488 -0.13381793 0
-0.70726192 0.42455858 0.28434396 255 255 255 -0.072890475 0.99615544 -0.048593972 0
-0.69493049 0.42500001 0.28100404 255 255 255 0 1 0 0
-0.6857903 0.42551169 0.28671899 253 255 255 -0.033171203 0.99884492 -0.034762494 0
-0.67322415 0.42567623 0.28507558 233 251 253 0.047137782 0.99739635 0.054576531 0
-0.66517615 0.42560393 0.28584373 225 241 244 -0.03428572 0.99939668 0.0055354326 0
-0.65520167 0.42586294 0.28215769 216 228 229 0.068191141 0.99487054 -0.074716777 0
-0.64330053 0.42588538 0.28358498 201 211 212 0.036049008 0.99135333 -0.12617071 0
-0.6326865 0.426 0.28347629 199 208 208 0 1 0 0
-0.6252358 0.42587009 0.28358048 194 202 201 -0.0030712651 0.99834406 -0.057442799 0
-0.6130845 0.4252747 0.28399789 192 199 195 -0.011112242 0.99980706 0.016193718 0
-0.60385203 0.42525604 0.28511652 191 198 192 -0.081051022 0.99463403 -0.064294919 0
-0.59942508 0.426 0.28514776 193 198 192 0 1 0 0
-0.58973902 0.42595214 0.28298247 192 197 191 0.012056678 0.99943584 -0.031347424 0
-0.57537949 0.4257569 0.28302157 194 199 192 0.01078665 0.99989295 0.0098877493 0
-0.56671721 0.42584878 0.28377938 195 199 192 -0.031192457 0.99939173 0.015596296 0
-0.54354215 0.42536733 0.28763479 195 200 191 0.056587566 0.99660945 0.059727296 0
-0.53420854 0.42540556 0.2841447 196 200 193 -0.062000513 0.9980703 0.0034010753 0
-0.52461529 0.42546389 0.28824142 197 202 196 0.10857009 0.99274319 0.051705714 0
-0.51314628 0.42582417 0.28257984 200 206 198 0.063188255 0.99793524 -0.011507068 0
-0.50263458 0.426 0.28425661 200 205 199 0 1 0 0
-0.49434745 0.42599085 0.28647467 201 207 200 0.043705493 0.99896646 0.012487311 0
-0.48590595 0.42566594 0.28325558 203 208 202 -0.11445853 0.99057913 -0.075180322 0
-0.47402272 0.42577758 0.28667167 205 210 203 -0.042281162 0.99613315 -0.077012695 0
-0.46735263 0.42567244 0.28637874 204 209 203 0.11010004 0.99161637 -0.067637883 0
-0.45493212 0.42568696 0.28189865 204 209 202 -0.049555101 0.99104464 -0.1239955 0
-0.44482756 0.42656255 0.28680092 204 210 202 -0.16423708 0.98291504 -0.083091371 0
-0.43425721 0.42699999 0.28736854 204 211 203 0 1 0 0
-0.42562881 0.42779708 0.28418368 200 208 201 -0.12196953 0.99169898 -0.040699929 0
-0.41318032 0.4283675 0.28465354 199 209 201 -0.11058243 0.99158072 -0.067374147 0
-0.40413362 0.42861152 0.28533125 198 208 202 0.025756821 0.990789 -0.13294294 0
-0.3925752 0.42844057 0.28583646 199 208 205 0.056874752 0.99784148 -0.032829005 0
-0.3838461 0.42884001 0.28355956 199 208 205 -0.053088799 0.99633366 -0.06708777 0
-0.37928107 0.42899999 0.28362021 202 211 208 0 1 0 0
-0.36570442 0.42929959 0.28547606 202 211 208 -0.18329819 0.9802289 -0.074519336 0
-0.29100856 0.42998019 0.28436506 215 221 217 0.065635957 0.99764931 0.019690845 0
-0.28147766 0.42972302 0.2840727 218 224 222 -0.022628473 0.99563807 -0.090514019 0
-0.271231 0.42978093 0.28180385 218 224 220 -0.040206287 0.9950878 -0.090463996 0
-0.26278237 0.42993489 0.28337815 224 227 221 0.032349732 0.99585474 -0.085010514 0
-0.25484511 0.42951474 0.28649342 228 232 223 0.097493567 0.99508947 0.017086282 0
-0.24376474 0.42943582 0.28335488 233 234 223 -0.05988507 0.99151838 -0.1153479 0
-0.23080763 0.42933431 0.2836048 240 239 227 0.17803934 0.98310262 -0.042558067 0
-0.22683744 0.42927042 0.28574777 239 239 227 -0.0312838 0.99792296 -0.056310926 0
-0.21511453 0.42923495 0.28449428 231 236 229 0.11043334 0.99388355 0 0
-0.20326737 0.42899996 0.28174746 207 218 220 0 1 0 0
-0.19614947 0.42896613 0.28508273 202 217 218 0.028879309 0.99947858 -0.014439601 0
-0.18530989 0.42765802 0.28596735 196 210 215 0.097613074 0.99481773 -0.028448591 0
-0.17781509 0.42861521 0.28518578 182 204 214 -0.34050485 0.92460757 -0.17075509 0
0.011913867 0.42690578 0.28417698 20 31 37 0.74437582 0.57260007 0.34356073 0
0.16302188 0.42465651 0.28547871 81 96 99 -0.92961532 0.24268493 -0.27734351 0
-0.82152283 0.4355171 0.28430849 41 55 56 0.84105986 0.26434678 0.47195244 0
-0.81879491 0.43152848 0.28228897 38 51 52 0.68239218 0.45017111 0.57592261 0
-0.35146186 0.43000001 0.28132325 207 216 213 0 1 0 0
-0.33722773 0.43016666 0.2864109 207 216 213 -0.02616659 0.99941027 -0.022234218 0
-0.32586181 0.43000001 0.28973711 211 220 217 0 1 0 0
-0.31680384 0.43075833 0.28642163 215 221 219 0.043307733 0.99609077 -0.076991566 0
-0.30408388 0.43042764 0.28929812 214 220 216 0.043307733 0.99609077 -0.076991566 0
-0.29290965 0.43000001 0.28493822 214 220 216 0 1 0 0
-0.26211786 0.43000001 0.28529549 226 229 222 0 1 0 0
-0.1720171 0.4313066 0.28439432 170 197 212 -0.28384134 0.95620173 -0.071501113 0
-0.16634308 0.43150902 0.28405094 163 193 210 0.0202619 0.98759323 0.15572138 0
-0.1559532 0.43156523 0.28609067 166 192 205 -0.061983086 0.99718273 0.042246163 0
-0.14801249 0.43206105 0.287269 176 198 209 0.047510788 0.99774021 -0.047510915 0
-0.13563885 0.43199998 0.28110647 168 196 209 0 1 0 0
-0.12536728 0.43200004 0.28171405 174 201 212 0 1 0 0
-0.11848117 0.43235868 0.28561711 181 203 214 -0.14815786 0.98772985 -0.049385775 0
-0.10898048 0.43265373 0.28450841 193 209 213 0.045313817 0.99876565 -0.020344974 0
-0.093657441 0.43241063 0.28514037 193 210 213 -0.061608583 0.99634105 -0.059236173 0
-0.083984464 0.43290913 0.28834593 198 213 216 0.08992748 0.98921424 -0.11562101 0
-0.07514672 0.43274733 0.28657949 197 213 213 -0.029370202 0.99784368 -0.05869839 0
-0.063839205 0.43230712 0.28593779 200 213 213 -0.017230337 0.99689615 0.076820344 0
-0.054917339 0.43205768 0.28708601 200 213 213 0.040759288 0.99833727 0.040759366 0
-0.04096318 0.43179572 0.28728807 201 213 210 0.050463319 0.99872243 0.0026317793 0
-0.031280436 0.43166548 0.28896752 203 214 210 -0.097592078 0.9758991 -0.19518387 0
-0.025995828 0.43159696 0.28600374 201 212 208 -0.099799119 0.99474651 0.02279208 0
-0.017808262 0.43183118 0.2882621 201 212 208 0.030693762 0.99949038 0.0087696398 0
-0.0050836187 0.43103814 0.2866365 200 211 211 0.050183415 0.99487245 0.087808579 0
0.0054845018 0.43083709 0.28467143 60 72 79 -0.027227299 0.99632627 -0.081195265 0
0.16710234 0.43578976 0.28471524 91 109 111 -0.90898329 0.34851676 -0.22865979 0
-0.88188708 0.44011477 0.28108153 92 80 64 -0.77849424 0.54495925 0.31139401 0
-0.87639773 0.44519785 0.28605792 73 67 54 -0.77060586 0.50992149 0.38229135 0
-0.82590199 0.44472128 0.28565413 47 61 64 0.67927951 0.42771566 0.59635442 0
0.16958492 0.44109759 0.28425321 96 114 116 -0.86895949 0.45263204 -0.20008381 0
0.17349876 0.44733548 0.28349206 98 118 119 -0.85474998 0.48471379 -0.18562065 0
-0.8734253 0.45398325 0.28425041 47 48 44 -0.43601173 0.36498216 0.82260668 0
-0.86732888 0.45668411 0.28511471 58 66 65 -0.77458966 0.51574922 0.36607859 0
-0.83281702 0.45565814 0.28651267 56 70 70 0.86421281 0.41829371 0.27958289 0
-0.82946706 0.45132089 0.28407472 53 67 69 0.84671009 0.36940622 0.38291129 0
0.17793164 0.45520696 0.28563643 108 128 128 -0.79918444 0.5497734 -0.2430093 0
0.1809236 0.45808125 0.28464857 109 128 130 -0.61350018 0.77899939 -0.12952772 0
-0.87416792 0.46078327 0.28235611 25 27 24 0.79603004 0.597022 -0.099503294 0
-0.86291671 0.46623495 0.28488576 65 80 80 -0.84824705 0.24447714 0.46979561 0
-0.84224832 0.46859273 0.2887713 61 75 78 0.63895082 0.49445364 0.58928549 0
-0.83681184 0.46555445 0.28319985 62 76 76 0.77568066 0.46876389 0.42258725 0
0.18639891 0.46283555 0.28476968 111 130 132 -0.65665632 0.73782182 -0.15627342 0
0.19482689 0.4677898 0.28549469 114 134 136 -0.54506189 0.80366391 -0.23881325 0
0.22919868 0.46700001 0.2809734 112 131 135 0 1 0 0
0.23370582 0.4687053 0.28237033 112 131 133 -0.35629618 0.84013653 -0.40892991 0
0.24615291 0.46921936 0.28565735 113 131 136 -0.062380031 0.99782485 -0.021316035 0
0.259965 0.46181643 0.28890821 0 0 0 0 0.44721895 -0.89442456 0
0.26102453 0.46178725 0.28782672 44 55 57 0.25457537 -0.94180834 0.21951859 0
-0.85458255 0.47326672 0.28592929 64 79 79 -0.33119512 0.83400226 0.44130489 0
-0.84347659 0.4723306 0.28480774 61 75 78 0.57200688 0.69319534 0.43850681 0
-0.83926135 0.47035632 0.28274658 64 78 81 0.7650131 0.52759945 0.36931539 0
0.199393 0.47084504 0.28844881 101 121 122 -0.40067941 0.90795505 -0.12277471 0
0.20437336 0.47239888 0.28439867 99 117 119 -0.43489599 0.87971598 -0.19226366 0
0.2136347 0.47675583 0.28496194 113 131 135 -0.41917571 0.90670437 -0.046677809 0
0.23689032 0.47337264 0.28160068 113 131 135 -0.30344945 -0.57655203 -0.75862134 0
0.24121606 0.47172415 0.28526926 87 98 104 0.79879069 0.5425868 0.25987113 0
0.25171748 0.47081223 0.28669801 112 130 130 -0.71235865 0.7013551 0.025420027 0
0.21809833 0.48087692 0.2836898 111 130 133 -0.73086351 0.60329801 -0.31917098 0
0.018034946 0.15973902 0.29207227 4 14 15 -0.067806676 0.98319203 -0.1695163 0
0.026432248 0.15940881 0.29434219 5 15 17 0.12383991 0.98907411 -0.079975069 0
0.031092897 0.15956813 0.29419658 3 12 14 -0.32214832 0.93211955 -0.16545011 0
0.063501291 0.15967388 0.29137757 14 24 25 -0.063564435 0.98524463 -0.15891084 0
-0.061873086 0.16626979 0.29714748 23 32 37 0.50312418 0.84778547 0.16770773 0
-0.053643174 0.16446379 0.29552341 27 35 40 0.09963946 0.99347007 0.055580407 0
-0.047271263 0.16424643 0.29776505 26 36 38 0.030727381 0.99926209 -0.023045512 0
-0.035289269 0.16447736 0.29455397 25 35 37 0.059057016 0.99760109 -0.036116663 0
-0.023482418 0.16448493 0.29426515 29 37 42 0.20288864 0.97827679 0.04255129 0
-0.015803531 0.16360269 0.2945765 31 39 42 -0.010740488 0.99836689 0.056108057 0
-0.0054182974 0.16290839 0.29584652 59 70 72 -0.064959891 0.9958033 0.064466752 0
0.0038961105 0.1624487 0.29657543 0 7 7 0.078872293 0.99677902 0.014517643 0
0.014911769 0.1606147 0.29366246 4 14 13 0.18530713 0.98034263 0.067747191 0
0.022016078 0.16048932 0.29792961 5 15 17 0.33496863 0.94143069 -0.038785033 0
0.037385613 0.16048954 0.29740214 9 19 20 0.0015168184 0.99734032 -0.072869755 0
0.046586659 0.1602654 0.29472643 10 21 21 -0.056665864 0.99435729 -0.089679964 0
0.056116272 0.16081201 0.29431435 14 23 22 0.027491389 0.98735833 -0.15610169 0
0.065161146 0.16081655 0.29600593 15 25 25 0.1424402 0.98979741 0.0034475268 0
0.074930035 0.1612289 0.29387894 16 26 27 -0.10621058 0.9933368 -0.044734132 0
0.085449286 0.16381295 0.29352495 13 21 22 -0.31540644 0.94329542 0.10350177 0
0.093909137 0.16334549 0.29398444 5 12 12 0.0779799 0.98597229 -0.14757289 0
0.10426915 0.16757935 0.29573268 10 18 19 -0.52265835 0.841519 -0.1366526 0
0.10895678 0.17211783 0.29666758 11 20 19 -0.77860248 0.55204248 -0.29837438 0
0.11371134 0.17637226 0.29566431 6 15 13 -0.82263523 0.51023549 -0.25086036 0
0.11780947 0.18495759 0.29528594 23 35 33 -0.91995686 0.15777758 -0.35886714 0
0.11944455 0.19570595 0.29679573 39 55 54 -0.75763953 0.31297475 -0.57273835 0
0.12104119 0.19820249 0.29489017 39 55 54 -0.90143406 0.33320761 -0.27638608 0
0.12374621 0.20463955 0.2951028 45 60 60 -0.87400424 0.47026592 -0.12233741 0
0.12824865 0.21234839 0.2965925 47 60 60 -0.79269212 0.54291004 -0.27728668 0
0.13298622 0.21719924 0.295582 44 55 56 -0.51144862 0.85675615 0.066251501 0
0.13750118 0.22203662 0.29542443 41 51 51 -0.80800754 0.57657486 -0.1211829 0
0.14336702 0.22720721 0.29521936 28 37 36 -0.65836257 0.67274952 -0.33758974 0
0.14611521 0.23519298 0.29528844 27 34 34 -0.94232023 -0.063160039 -0.32869935 0
0.14401011 0.2451784 0.29568565 25 31 30 -0.84596646 -0.41825899 -0.33075675 0
0.13559437 0.25446874 0.29557234 28 32 30 -0.99351221 0.041115962 -0.10603318 0
0.13760054 0.26488957 0.29573476 27 31 27 -0.9338479 0.30857158 -0.18086347 0
0.15511973 0.26884371 0.29914069 15 16 15 0.63679379 0.73546183 0.23149422 0
0.13917716 0.27716228 0.29800707 27 29 26 -0.95630181 -0.13522686 -0.25923061 0
0.14035103 0.27497858 0.2931447 29 31 28 -0.99256033 0.11939041 -0.023872992 0
0.15578604 0.27166346 0.2967822 20 21 21 0.28669071 -0.7418161 0.60623199 0
0.13998729 0.2807048 0.29603222 26 31 27 -0.91755521 0.36702317 0.15292664 0
0.14128008 0.28618294 0.29566351 27 32 29 -0.98539197 0.088998549 -0.1451965 0
-0.79537749 0.29883826 0.29164839 139 140 145 -0.054863874 0.60347635 0.79549122 0
-0.78618258 0.29772195 0.29350305 130 133 139 0.59972513 0.78008556 0.17831528 0
0.14188768 0.29528955 0.29439476 27 31 27 -0.94720328 0.23905863 -0.21367456 0
-0.80220729 0.3094928 0.29532084 255 251 255 0.88484329 0.46588224 -0.0024763013 0
-0.79946017 0.3029165 0.29709557 18 18 17 0.55857235 0.82551515 0.080756485 0
0.14433399 0.30501169 0.29346195 28 31 27 -0.93472177 0.22815332 -0.27247247 0
-0.81017113 0.31744021 0.29392844 94 102 104 0.62608886 0.75130516 0.20869422 0
-0.80677915 0.31543967 0.29537761 131 135 137 0.72342414 0.68225151 -0.10578423 0
0.14503342 0.31563461 0.29651445 28 28 26 -0.95937395 0.075544134 -0.27183583 0
-0.81432217 0.32716852 0.29872501 62 66 66 -0.3015514 0.33077052 0.89423585 0
-0.808312 0.32647577 0.2944864 86 90 93 0.99643546 0.025964551 0.080263346 0
0.1462952 0.32450661 0.29492778 27 28 26 -0.98824972 0.018050861 -0.15177812 0
-0.81300873 0.33352536 0.2947841 111 114 113 0.98536777 -0.057113133 0.16058794 0
-0.80750245 0.33454797 0.29353723 41 45 47 0.71128428 -0.025393996 0.70244551 0
0.145981 0.33395007 0.29440615 27 28 28 -0.94456071 0.019632975 -0.32774925 0
-0.81161356 0.34443426 0.29695338 33 34 33 0.79818863 0.076378562 0.59754604 0
-0.80985415 0.34446481 0.29456249 9 13 14 0.94868428 0 0.31622493 0
0.1466715 0.34457198 0.29513058 30 31 30 -0.9809159 0.0076784664 -0.19428091 0
-0.81041431 0.35596818 0.29590544 2 6 8 0.91771621 0.018394124 0.39681059 0
-0.8095172 0.35397676 0.29248849 4 9 9 0.98787826 -0.030444 0.15221618 0
0.14795022 0.35428897 0.2939631 32 34 33 -0.94507921 0.12606716 -0.30155006 0
-0.81121844 0.36423647 0.29682219 4 8 10 0.94085068 0.06151443 0.33319071 0
-0.80903518 0.3655782 0.29135478 1 5 6 0.89087051 0.089091055 0.44543526 0
0.14793463 0.365026 0.29744202 35 39 38 -0.99160486 0.058308914 -0.1154116 0
0.15004492 0.36829329 0.29005837 36 42 42 -0.94585043 0.28375363 -0.15764174 0
-0.81156027 0.37350288 0.29597637 6 9 11 0.88589436 0.093767941 0.45431122 0
0.14858513 0.37373218 0.29834303 36 44 44 -0.95400804 0.17788956 -0.24129637 0
0.1510137 0.37665573 0.29282704 38 45 47 -0.97416162 0.1181358 -0.19249186 0
-0.813676 0.38611346 0.29516077 7 11 12 0.88979822 0.28156614 0.35913736 0
0.1498201 0.38128036 0.29952016 42 52 53 -0.97014254 0.24253564 0 0
0.15136072 0.38529709 0.29665497 42 51 53 -0.9622786 0.16721635 -0.21461245 0
-0.81549418 0.39535639 0.29439098 11 15 16 0.97753179 0.054561056 0.20360443 0
0.1545385 0.39571553 0.29413214 43 52 54 -0.9495492 0.20380056 -0.23837309 0
-0.81614453 0.40448239 0.2949456 17 21 22 0.96215862 0.062909774 0.26512861 0
-0.7351833 0.40695578 0.29343292 113 124 133 -0.82662535 0.45187861 -0.3354046 0
0.15563038 0.40346208 0.29624271 55 68 72 -0.96410751 0.19993766 -0.17470397 0
-0.81731278 0.41425583 0.2951453 21 26 29 0.95839441 0.14766166 0.24428701 0
-0.73276037 0.4139052 0.29529363 151 165 172 -0.80295324 0.52726889 -0.2779454 0
-0.72788697 0.41916761 0.29514349 252 255 255 -0.57972258 0.78095663 -0.23244022 0
0.15791383 0.41389409 0.2950187 67 83 84 -0.94694269 0.19867769 -0.25263971 0
-0.82142365 0.42749989 0.29574323 32 43 44 0.82460624 0.52750623 0.20435707 0
-0.81892353 0.4222852 0.29484788 28 36 38 0.91283429 0.31382969 0.26123646 0
-0.72375029 0.42223635 0.29545793 212 212 212 -0.64651519 0.65779424 -0.38642576 0
-0.71360666 0.42484483 0.29525259 255 255 255 -0.013416686 0.9994542 -0.03018772 0
-0.70225155 0.42566365 0.29877245 255 255 255 -0.12925419 0.99021667 -0.052576393 0
-0.69361627 0.42530924 0.29387757 255 255 255 -0.010438795 0.99839449 -0.055673853 0
-0.68908155 0.42558369 0.29340467 255 255 255 -0.19611387 0.9805811 0 0
-0.67346883 0.42588052 0.29215023 233 245 247 -0.051852353 0.99426764 -0.093504779 0
-0.66288853 0.42567262 0.29584312 219 233 235 0.030280335 0.9992016 -0.026064547 0
-0.65651053 0.42553228 0.29281515 211 223 223 0.019762006 0.99980372 -0.0014089528 0
-0.64150983 0.426 0.29153186 202 210 212 0 1 0 0
-0.63234746 0.426 0.29064065 199 208 207 0 1 0 0
-0.62898147 0.426 0.29237062 196 205 204 0 1 0 0
-0.61278999 0.4252308 0.29260284 193 199 194 -0.0063884081 0.99991727 0.011158918 0
-0.6049431 0.42564383 0.29570571 192 198 191 -0.036205538 0.99764687 0.058222517 0
-0.58511078 0.426 0.29264835 191 196 190 0 1 0 0
-0.57600611 0.4255448 0.2966854 194 197 192 0.12154651 0.99151498 -0.046093293 0
-0.5256421 0.42594767 0.2967371 197 201 195 0.08813227 0.99501538 -0.046658304 0
-0.51810861 0.42543539 0.29354814 199 204 198 -0.054183919 0.99841845 -0.014989423 0
-0.48603606 0.4261111 0.29459876 203 208 202 0.01721628 0.99951822 -0.025824379 0
-0.46244037 0.426 0.29815292 205 210 204 0 1 0 0
-0.45267487 0.42650613 0.29456079 204 209 202 -0.048445862 0.99861073 -0.020726554 0
-0.44465899 0.42671272 0.29545715 202 209 202 0.0056944094 0.99997818 0.0033373726 0
-0.43437016 0.42711949 0.29578787 200 206 201 -0.083475895 0.99439245 -0.064925879 0
-0.42804742 0.427953 0.29777449 201 207 203 -0.093949534 0.99429083 0.050588276 0
-0.41318539 0.42883706 0.29490155 198 208 203 -0.043705542 0.99896646 -0.012487325 0
-0.40958899 0.42892614 0.29738539 200 209 204 0.18990375 0.97062892 0.14770284 0
-0.39892527 0.42899996 0.29384008 199 208 205 0 1 0 0
-0.38547409 0.42899996 0.29742387 199 208 205 0 1 0 0
-0.37874117 0.42899999 0.29002696 201 210 207 0 1 0 0
-0.26295677 0.42987233 0.29858342 225 231 227 0.087726973 0.99529415 -0.041153621 0
-0.25494593 0.42947856 0.29368052 230 234 226 -0.085528202 0.99387652 -0.06995932 0
-0.24792844 0.42927235 0.29162496 235 237 226 -0.049766306 0.99531084 -0.082944013 0
-0.23093048 0.42944714 0.29804456 255 254 232 0.066238433 0.99370593 0.090338372 0
-0.2241177 0.42989036 0.29549751 254 253 234 -0.11945421 0.98502111 0.12435487 0
-0.21551982 0.42931461 0.29665059 194 215 226 0.13814771 0.99011242 0.024342377 0
-0.20842484 0.42928869 0.29595351 200 216 221 0.057860184 0.99454498 -0.08679013 0
-0.19383451 0.42900002 0.29611149 195 212 219 0 1 0 0
-0.18567431 0.42875537 0.2960631 189 208 213 0.0073017702 0.99712992 -0.075356677 0
-0.17970778 0.42926469 0.29432592 182 205 213 -0.56807256 0.69431621 -0.44183546 0
0.0067861173 0.42744225 0.29412049 173 182 179 0.78379053 0.58930224 0.19594717 0
0.16121443 0.42521858 0.29495814 87 103 107 -0.94400066 0.30980304 -0.11351088 0
-0.82567728 0.43245986 0.29557526 38 50 52 0.78652883 0.5539614 0.27294537 0
-0.36537588 0.43000001 0.29610267 206 215 214 0 1 0 0
-0.35647377 0.43000001 0.29483002 206 215 212 0 1 0 0
-0.34495807 0.43000001 0.29679632 206 215 212 0 1 0 0
-0.33462846 0.43047804 0.29688016 208 217 214 0.01345473 0.99989289 0.0057662935 0
-0.32621932 0.43035612 0.29497376 211 220 217 -0.006457109 0.99628115 -0.085919462 0
-0.31979406 0.43009976 0.29242826 213 223 222 -0.28227356 0.95539433 -0.086852856 0
-0.30525267 0.43051472 0.29134399 216 222 220 0.043432787 0.99896699 0.013363849 0
-0.29476565 0.43031278 0.29640201 216 224 221 0.046210457 0.99719179 -0.058932792 0
-0.28612533 0.43013045 0.29613292 219 225 223 0.025987532 0.99892032 -0.038509961 0
-0.27717665 0.43033201 0.29663059 221 227 225 -0.13856377 0.98728168 -0.07794214 0
-0.25747892 0.43000001 0.29978102 239 240 232 0 1 0 0
-0.24323049 0.43000001 0.29956371 255 253 238 0 1 0 0
-0.23935291 0.43000001 0.29501531 252 249 232 0 1 0 0
-0.22294399 0.43000001 0.29274622 247 253 245 0 1 0 0
-0.2189412 0.43000001 0.2978597 162 188 215 0 1 0 0
-0.17539617 0.43105805 0.29492971 180 203 211 -0.17888576 0.97569233 -0.12658696 0
-0.16522276 0.43128055 0.29275158 169 195 208 0.04477815 0.99584466 -0.079299018 0
-0.15537959 0.432347 0.29567415 171 197 206 -0.086999722 0.99362224 -0.071734637 0
-0.13605802 0.43200004 0.29268527 180 201 209 0 1 0 0
-0.1283381 0.43200004 0.29005563 181 204 210 0 1 0 0
-0.11506808 0.43298209 0.29609177 186 205 211 -0.050237935 0.9986341 -0.014353699 0
-0.10442775 0.43290925 0.29679894 189 208 212 0.050237939 0.9986341 0.014353677 0
-0.094683476 0.43279755 0.29527214 192 210 213 -0.04045254 0.99774998 0.053465445 0
-0.082961977 0.43259603 0.29573804 195 212 213 0.038859896 0.99410182 0.10124976 0
-0.076427914 0.43276978 0.29392064 196 212 212 -0.056634627 0.99766153 0.038262375 0
-0.06339892 0.43209332 0.29753739 197 212 212 0.031200781 0.99760717 0.061695933 0
-0.055729136 0.43200001 0.29561916 198 212 212 0 1 0 0
-0.041612897 0.43175206 0.29738748 200 213 210 0.081680089 0.98909092 0.12258738 0
-0.033508342 0.43160793 0.29692897 202 213 210 -0.0044858474 0.99758637 0.069291875 0
-0.025425168 0.43153998 0.29319337 203 214 210 0.024093868 0.99954325 0.01823868 0
-0.013676273 0.43106812 0.2960133 201 212 208 0.0715096 0.99736303 -0.012384319 0
-0.0015024175 0.43083081 0.29547811 68 79 85 -0.1746881 0.98360777 -0.044719145 0
0.0026957362 0.43102011 0.29483318 24 33 40 0.10824414 0.9507044 0.29059297 0
0.16438685 0.43440259 0.29492152 95 114 115 -0.90536457 0.2641103 -0.33250695 0
-0.87249434 0.44524765 0.29458547 68 60 50 -0.42998308 0.83172178 0.35121703 0
-0.86776179 0.44795093 0.29545385 46 43 37 -0.79882795 0.50123268 0.3326253 0
-0.83245903 0.4458178 0.29766667 47 61 61 0.81344754 0.42804924 0.39379808 0
-0.82849199 0.44206867 0.29335943 43 57 59 0.87637419 0.35921767 0.32082865 0
0.16760938 0.44333816 0.29650041 103 124 125 -0.86916965 0.42389441 -0.25467166 0
0.17109957 0.44833142 0.29401731 106 126 127 -0.78714615 0.57081729 -0.23359926 0
-0.86473119 0.45443559 0.29363632 60 71 71 -0.84235072 0.34053391 0.41771024 0
-0.84078002 0.45801502 0.29852495 58 73 73 0.80262035 0.54627067 0.23955999 0
-0.83621019 0.45364594 0.29578894 53 68 68 0.83265966 0.37542182 0.40710732 0
0.17536363 0.45514947 0.29449618 111 131 132 -0.78263474 0.52237439 -0.33853793 0
0.18078013 0.45964706 0.29321054 116 135 139 -0.43143523 0.89368272 -0.12326748 0
-0.86179662 0.46248081 0.2943573 62 76 77 -0.8509689 0.41357803 0.32373616 0
-0.85462409 0.46640819 0.29803988 60 74 76 -0.32759148 0.80831522 0.48919359 0
-0.84549648 0.46516699 0.29672584 59 74 75 0.46101889 0.70400977 0.54021454 0
-0.83836889 0.46192977 0.29067367 56 72 72 0.76805729 0.43889737 0.46632308 0
0.17983761 0.46055681 0.29947537 123 147 147 -0.57491183 0.78023612 -0.24639009 0
0.18506363 0.46326298 0.29613826 117 140 143 -0.50093669 0.86303622 -0.065046646 0
0.19239712 0.46786961 0.29478064 118 139 143 -0.53676933 0.84294933 -0.036264736 0
0.22944734 0.46923867 0.29870254 135 158 164 0.51552135 0.83388811 0.19715087 0
0.2358323 0.46763548 0.29598373 131 153 159 -0.11281501 0.98860681 0.099646322 0
0.2446032 0.46937451 0.29324716 114 132 136 0.029732566 0.92178684 -0.38655537 0
-0.85476756 0.47061521 0.29177251 62 76 78 -0.17563808 0.81588137 0.55089819 0
-0.8488341 0.47154516 0.2907986 61 75 76 0.15868439 0.91254425 0.37693796 0
0.1991073 0.47101158 0.29489195 107 127 129 -0.48126763 0.87187332 -0.090655193 0
0.20353648 0.4731943 0.29439491 107 125 129 -0.43828267 0.89783323 -0.04247129 0
0.21141444 0.47696951 0.29397395 119 139 146 -0.41744187 0.8922345 -0.17222062 0
0.22864914 0.47171697 0.29453868 108 125 129 0.82359225 0.17388058 0.53987163 0
0.23450507 0.47345182 0.29489362 114 131 137 -0.32512531 -0.25698897 0.91008252 0
0.243149 0.47188815 0.29620287 87 100 104 -0.13965598 0.92274982 0.35920608 0
0.25238615 0.47147596 0.29277733 108 131 133 -0.56746286 0.81410974 -0.12333374 0
0.21625125 0.48135513 0.29599112 121 140 146 -0.63177389 0.75413185 -0.1792956 0
0.22263189 0.48158875 0.29633224 79 93 97 0.39064795 0.84846842 0.35706517 0
0.026954226 0.15930951 0.3037639 7 17 18 0.21074377 0.95418495 -0.21241029 0
-0.063419633 0.16690606 0.30530193 26 35 39 0.25318322 0.96726793 -0.017056741 0
-0.055979155 0.16508621 0.30493182 25 33 38 0.10557423 0.99368447 -0.038016696 0
-0.045283169 0.16471936 0.30399874 25 35 37 -0.047834292 0.99658793 -0.067263715 0
-0.03376149 0.16421135 0.30545941 25 34 37 -0.0060783741 0.99976003 -0.021049837 0
-0.023797119 0.16440189 0.30742249 37 46 48 0.034080751 0.99697733 0.069819324 0
-0.014278811 0.16391397 0.30395362 38 48 50 0.14945589 0.98867369 -0.013685372 0
-0.0052404194 0.16279428 0.30523378 1 3 5 0.054207955 0.99492508 0.084767662 0
0.0049666762 0.16193618 0.30459726 1 10 8 0.20977646 0.97739893 -0.026174691 0
0.016345713 0.16085379 0.30510798 4 14 15 -0.064049542 0.99645472 -0.054549839 0
0.025821161 0.16028979 0.30859241 6 16 17 0.045280874 0.99816966 -0.040086534 0
0.03588048 0.16082539 0.30578515 11 21 22 -0.0294626 0.99911118 -0.030146968 0
0.044596355 0.16034505 0.30496198 9 19 19 0.018923698 0.99954659 0.02341732 0
0.05533693 0.16166271 0.30441082 13 23 22 0.0018064565 0.9999705 -0.0074695479 0
0.063908964 0.16082007 0.30456793 12 22 22 0.19766071 0.97895712 0.050727155 0
0.076232627 0.16173448 0.30403373 13 22 23 -0.1605341 0.98624295 0.039417569 0
0.082589939 0.16346113 0.3052201 12 20 22 -0.11113994 0.99194497 0.060770191 0
0.095153078 0.16537651 0.30549285 10 18 21 -0.40935108 0.88227582 -0.23242415 0
0.10162233 0.16789705 0.30319816 11 19 21 -0.29814249 0.9242413 -0.23851429 0
0.1072256 0.1719451 0.30270621 10 19 18 -0.66101873 0.72295529 -0.20097239 0
0.11244506 0.17724918 0.3054755 9 18 16 -0.73724806 0.66734099 -0.10545743 0
0.11557732 0.18580008 0.30565488 26 38 38 -0.91529596 0.27388161 -0.29533416 0
0.11828368 0.19494213 0.30486554 37 52 51 -0.92803741 0.25750303 -0.26914421 0
0.1198418 0.20252374 0.30842006 46 62 61 -0.66666448 0.33333224 -0.66666949 0
0.12192383 0.20438068 0.3045978 45 61 60 -0.90484244 0.38987008 -0.17105995 0
0.12743099 0.21296136 0.30435532 46 60 60 -0.7184338 0.67117518 -0.18269293 0
0.13263969 0.21740848 0.30571318 43 55 54 -0.74689156 0.63614672 -0.19357271 0
0.13615295 0.22592826 0.30645356 37 47 46 -0.68374467 0.70173985 -0.2001361 0
0.14126375 0.22785917 0.30668277 34 43 42 -0.79944319 0.52800363 -0.28653592 0
0.14199769 0.2355088 0.30532795 26 34 33 -0.92800003 -0.16089775 -0.33604747 0
0.13883558 0.24632129 0.30622551 28 34 34 -0.89753455 -0.38089299 -0.22215343 0
0.14152798 0.24463257 0.30188677 28 34 34 -0.85693908 -0.34277663 -0.38491508 0
0.1350169 0.25481859 0.30434623 27 31 31 -0.99463916 -0.10263561 0.012605195 0
0.13660936 0.26553744 0.30571428 27 31 28 -0.96316987 0.15373869 -0.22060879 0
0.15597028 0.26779047 0.30223149 18 19 19 -0.29619861 0.94890064 0.10887596 0
0.13761015 0.27512929 0.30690476 26 29 25 -0.94737661 0.10573114 -0.30215633 0
0.1553635 0.27057743 0.3010748 0 0 0 0.66666889 -0.33332449 -0.66666889 0
0.13918939 0.28501305 0.3048383 25 30 26 -0.96610498 0.090951927 -0.24159655 0
0.14113384 0.28648531 0.30039257 23 29 25 -0.94118315 0.12549208 -0.31372929 0
0.13946193 0.29559931 0.30539334 27 30 27 -0.93372756 0.13578545 -0.33123261 0
0.14040722 0.29042551 0.30178946 24 29 25 -0.96135587 -0.22275187 -0.16179164 0
-0.80054688 0.30756807 0.30624807 136 136 135 0.76023883 0.39888781 0.51276267 0
-0.79560208 0.30346537 0.30402523 78 79 81 0.098957852 0.95682991 -0.27328348 0
0.14155425 0.30371413 0.30521259 28 28 26 -0.94269198 0.23791167 -0.23394416 0
-0.80489963 0.31567937 0.30375659 167 168 173 0.78552902 0.59879982 -0.15615013 0
0.14330818 0.3152523 0.30463964 24 24 22 -0.97315598 0.091311805 -0.2112572 0
-0.81215662 0.32408288 0.30332148 83 88 91 0.93147826 0.24048555 0.27297428 0
-0.80968523 0.32305524 0.3033224 93 96 99 0.79995561 0.58200324 -0.14609315 0
0.1442291 0.32518414 0.30490938 27 27 25 -0.99003357 0.0037697826 -0.14078085 0
-0.81284505 0.33461949 0.30537111 57 61 60 0.97692221 0.040276501 0.20976353 0
0.14398672 0.33451414 0.3045356 28 29 28 -0.97663587 0.030192237 -0.21276943 0
-0.81444627 0.34412795 0.30598453 53 55 53 0.94523227 0.05512407 0.32170987 0
0.14464775 0.3445082 0.30452025 28 30 29 -0.92433441 0.087709501 -0.37136632 0
-0.81385207 0.35561988 0.30522051 8 12 13 0.92867947 0.0093670217 0.37076509 0
0.14574058 0.35441998 0.30229884 30 32 31 -0.90735686 0.063762501 -0.41549736 0
-0.8145051 0.36460814 0.30454662 6 10 13 0.93622565 0.097433373 0.33762166 0
0.14583308 0.3644937 0.30598029 32 36 36 -0.95245022 0.14031748 -0.27046162 0
-0.81535572 0.37460655 0.30580944 6 10 12 0.90946722 0.017884534 0.41539091 0
0.14761762 0.37462306 0.30522382 37 44 45 -0.98695093 0.13181944 -0.092473768 0
-0.81716961 0.38444033 0.30692819 7 11 12 0.95467001 0.20660938 0.21428403 0
0.14878815 0.38195288 0.30608177 41 49 51 -0.94126588 0.23029861 -0.24694361 0
0.15086737 0.38804498 0.30326045 47 56 58 -0.95138943 0.24922496 -0.18095593 0
-0.82034111 0.39948276 0.30969387 15 19 20 0.9615249 0 0.27471793 0
-0.81822598 0.39462465 0.30450445 10 14 15 0.95759892 0.11637869 0.26355314 0
0.15205848 0.39499801 0.30429438 48 59 62 -0.93647134 0.15480341 -0.31473383 0
-0.82087338 0.40258098 0.30815166 13 18 18 0.93632817 0.20759964 0.28318176 0
-0.81944042 0.40594181 0.30384871 17 22 22 0.81185216 0.12658364 0.56997585 0
-0.74071246 0.40634862 0.30645776 82 91 99 -0.96457845 0.25226796 -0.077131495 0
-0.73913336 0.40870088 0.30205843 48 57 64 -0.82247925 0.52086377 -0.2285364 0
0.15422291 0.40618482 0.30704466 59 72 77 -0.92122525 0.2634553 -0.28624353 0
-0.82156652 0.41497889 0.30650771 21 28 29 0.9475351 0.10847387 0.30068362 0
-0.81969422 0.41492367 0.30139697 21 27 30 0.83323246 0.10152928 0.54352129 0
-0.73556787 0.41514319 0.30583575 183 193 199 -0.7484982 0.62943679 -0.20870942 0
0.15636493 0.41571078 0.3048878 73 90 92 -0.97367942 0.17999183 -0.13982622 0
-0.82286626 0.42485091 0.30377105 29 39 40 0.82662082 0.36332515 0.42975906 0
-0.73189914 0.42009732 0.30815682 255 254 252 -0.60671896 0.75118548 -0.26002428 0
-0.72663808 0.42214942 0.30333817 254 254 254 -0.52366382 0.8322174 -0.18218221 0
-0.70494813 0.42576262 0.3057864 255 255 255 -0.12319788 0.98905087 -0.081244461 0
-0.6945169 0.42575759 0.30973181 255 255 255 0.21643272 0.95592666 0.19839635 0
-0.68976116 0.426 0.301404 255 255 255 0 1 0 0
-0.66761744 0.42599997 0.30871123 218 232 235 0 1 0 0
-0.65388745 0.42612007 0.30478424 204 213 212 0.038349755 0.99347824 -0.10737941 0
-0.64359826 0.42601252 0.30720747 199 208 207 0.09230765 0.99488503 -0.041025691 0
-0.63152224 0.426 0.30063045 197 206 205 0 1 0 0
-0.6277225 0.426 0.30953538 193 197 196 0 1 0 0
-0.61383885 0.42541617 0.30037785 193 199 195 0.088185526 0.99577194 -0.025720647 0
-0.6062324 0.42554259 0.30111149 192 199 192 -0.028512906 0.99796546 -0.057025824 0
-0.59241587 0.426 0.30626976 192 197 191 0 1 0 0
-0.58445823 0.426 0.30088502 192 197 191 0 1 0 0
-0.57930315 0.42592433 0.30112249 192 197 191 0.060092006 0.99717486 -0.045068331 0
-0.56792599 0.426 0.30103889 196 199 192 0 1 0 0
-0.55427432 0.426 0.30834323 197 200 193 0 1 0 0
-0.54799902 0.42595458 0.30546606 196 199 192 0.031682309 0.99906051 -0.029570118 0
-0.52525342 0.42600647 0.30528456 197 202 196 0.0033549021 0.99881041 -0.048646674 0
-0.5142014 0.42619255 0.30926549 199 204 198 0.023598926 0.99545616 -0.092249982 0
-0.50638556 0.4260869 0.30526441 201 207 200 0.039691407 0.99743664 -0.05953731 0
-0.48325682 0.42659122 0.30955946 206 211 205 -0.090524226 0.99577999 -0.015087407 0
-0.47359055 0.42674071 0.3047033 204 209 204 0.0064295107 0.99720454 -0.074442744 0
-0.46471214 0.42622542 0.30010676 204 209 203 0.027846009 0.99550718 -0.090499431 0
-0.45741248 0.42630228 0.30409431 203 209 202 -0.025538113 0.99947214 0.020079413 0
-0.4370504 0.4270325 0.30596641 200 207 202 -0.0071696984 0.99965942 0.025093891 0
-0.42428222 0.42789242 0.30623883 200 208 203 -0.069432579 0.99697083 -0.035047531 0
-0.41316214 0.42890134 0.30504474 198 207 203 0.079428777 0.99678111 -0.010879675 0
-0.40885603 0.42821774 0.30120662 199 208 205 -0.040705707 0.99730384 0.06105876 0
-0.39806509 0.4288525 0.30266663 201 210 207 -0.071246147 0.99745882 0 0
-0.38286477 0.42899999 0.30806109 201 210 207 0 1 0 0
-0.37424093 0.42951787 0.30003226 202 211 208 -0.078972764 0.99278271 -0.090254441 0
-0.36619592 0.42958111 0.304405 206 215 214 0.030433688 0.99842429 0.047146715 0
-0.23672059 0.42970875 0.30706087 157 195 222 -0.017523726 0.99238169 -0.12194893 0
-0.22478619 0.42980424 0.30351806 206 220 233 -0.18807045 0.97482896 -0.11974143 0
-0.21178797 0.42976546 0.30632657 175 203 224 -0.038838625 0.99488181 -0.093282923 0
-0.20529075 0.42935476 0.30571723 188 207 215 0.12277818 0.99221724 0.020745607 0
-0.19192073 0.42899999 0.30756903 186 206 214 0 1 0 0
0.0049516764 0.42391294 0.305145 28 29 31 0.81598556 0.29741535 0.49569318 0
0.15840171 0.42413065 0.30511373 86 102 105 -0.91910309 0.25408167 -0.3011511 0
0.16074653 0.42821637 0.30121654 94 111 113 -0.93233716 0.18483202 -0.31078061 0
-0.83210593 0.43622667 0.30676535 40 53 56 0.70092142 0.47958836 0.5279243 0
-0.82783049 0.43231034 0.3025195 38 49 51 0.80179507 0.55835366 0.2129927 0
-0.3430694 0.43027902 0.3026365 208 217 215 -0.075556777 0.99608362 -0.045918725 0
-0.33603722 0.43084231 0.30518776 212 221 220 0.0065067071 0.99845773 -0.05513566 0
-0.32503983 0.43099999 0.30442202 215 224 223 0 1 0 0
-0.31227243 0.43099999 0.30364558 217 226 225 0 1 0 0
-0.30834317 0.43099999 0.30394551 216 225 222 0 1 0 0
-0.29404286 0.43030554 0.30755323 219 225 223 0.13084523 0.99069774 0.037384152 0
-0.28424147 0.43052635 0.30600631 219 227 225 -0.089442059 0.99465579 -0.05157556 0
-0.27602205 0.43088749 0.30421242 222 229 226 0.073148333 0.99732029 -0.0012510819 0
-0.26435882 0.43039072 0.30510509 225 232 228 -0.055418801 0.99352676 -0.099163368 0
